# .PCD v0.7 - Point Cloud Data file format
VERSION 0.7
FIELDS x y z conf
SIZE 4 4 4 4
TYPE F F F F
COUNT 1 1 1 1
WIDTH 512
HEIGHT 1
VIEWPOINT 0 0 0 1 0 0 0
POINTS 512
DATA ascii
0 0 0 0
-0.36995465 -0.2731638 0.7293539 1
-0.33780688 -0.27716324 0.74541497 1
-0.3694849 -0.22524959 0.73112589 1
-0.33872819 -0.22342302 0.74551392 1
-0.29949903 -0.20635507 0.74757588 1
-0.36811998 -0.17559876 0.73142147 1
-0.33620152 -0.17340857 0.7453047 1
-0.29903033 -0.17416239 0.74745947 1
-0.36698195 -0.12563539 0.73013079 1
-0.3298077 -0.12318141 0.74444956 1
-0.28125817 -0.12324034 0.7473706 1
-0.36578658 -0.074844502 0.72869289 1
-0.32626742 -0.07425227 0.74362069 1
-0.28166589 -0.084786154 0.747015 1
-0.36588302 -0.024913026 0.72667992 1
-0.32653019 -0.024935551 0.74112308 1
-0.29309437 -0.02761445 0.74195755 1
-0.3650884 0.025295934 0.72477305 1
-0.32653198 0.024153421 0.73909694 1
-0.27616659 0.035722625 0.74778569 1
-0.36486486 0.075248182 0.72349072 1
-0.32633147 0.075191207 0.73742056 1
-0.2781727 0.078440152 0.74607152 1
-0.36548024 0.12502502 0.72241408 1
-0.32635674 0.12527457 0.73607236 1
-0.28070098 0.12292092 0.74690831 1
-0.36594424 0.17583385 0.72122455 1
-0.3267374 0.1743136 0.73537242 1
-0.28283224 0.16941726 0.74789888 1
-0.36735916 0.22556902 0.72085291 1
-0.32647765 0.22434565 0.73544931 1
-0.28793916 0.22256969 0.74785995 1
-0.3682895 0.27579325 0.71701962 1
-0.32821906 0.27422604 0.73484653 1
-0.36467698 0.3021161 0.71401191 1
-0.32589272 0.30386537 0.7335552 1
-0.30147246 -0.30110252 0.77430916 0.66796875
-0.2745764 -0.30627087 0.7888481 1
-0.3134999 -0.27526796 0.75825119 0.94189453
-0.2723406 -0.27452442 0.78296381 0.99427533
-0.24761558 -0.25426573 0.79952323 1
-0.31470773 -0.22692084 0.75890702 0.94189453
-0.26814845 -0.22475024 0.77910799 1
-0.24608679 -0.22126178 0.79832834 1
-0.31336027 -0.17756382 0.75837576 0.92502522
-0.26771241 -0.17504832 0.77361935 1
-0.2440699 -0.17401168 0.79737067 1
-0.30962318 -0.12751874 0.75504017 0.89624023
-0.2663486 -0.12620384 0.77153385 1
-0.24276261 -0.12175755 0.79657382 1
-0.3115032 -0.075677 0.78777665 0.57310265
-0.26454383 -0.076484397 0.77328986 1
-0.2419312 -0.074702635 0.79564196 1
-0.31474233 -0.024381312 0.79301184 0.53752792
-0.26278311 -0.025377588 0.77790797 1
-0.24183035 -0.02522004 0.79527205 1
-0.31172067 0.027047424 0.78631431 0.74101561
-0.26271164 0.025660543 0.77690274 1
-0.24064977 0.02471078 0.79492694 1
-0.31285691 0.073555142 0.78928208 0.56534094
-0.26538345 0.076575853 0.77509654 0.98443604
-0.24054526 0.074256018 0.79481059 1
-0.31357881 0.12460412 0.78914791 0.52110875
-0.2667475 0.1256448 0.77435249 1
-0.23944746 0.12584078 0.79514456 1
-0.31544566 0.17463383 0.79243064 0.51171875
-0.26794618 0.17578767 0.77292413 1
-0.24054256 0.17438857 0.7947821 1
-0.31561181 0.22506911 0.7919336 0.52039933
-0.27228069 0.22509524 0.77239406 1
-0.24139261 0.2231327 0.79565942 1
-0.31847176 0.27152359 0.79444903 0.4884924
-0.27328551 0.27511644 0.77921861 1
-0.24361695 0.26803684 0.79779673 1
-0.3184163 0.32136431 0.78897637 0.56420898
-0.27415285 0.31308278 0.78555405 1
-0.24854101 0.31221986 0.79937869 1
-0.25248021 -0.30853295 0.80036807 1
-0.2232829 -0.3105177 0.81393605 1
-0.17456268 -0.31460461 0.83577192 1
-0.14563079 -0.31725496 0.84794176 1
-0.30924881 -0.26979095 0.80492437 0.47428384
-0.25220543 -0.29491973 0.80040723 1
-0.22422266 -0.27538806 0.81172991 1
-0.175354 -0.27491784 0.83363456 1
-0.14478894 -0.2733728 0.8467871 1
-0.31000474 -0.22414158 0.80335546 0.63557547
-0.22259954 -0.225844 0.80993271 1
-0.17681868 -0.2248382 0.83051103 1
-0.14172117 -0.22296363 0.845725 1
-0.31152487 -0.17083688 0.80591106 0.51410061
-0.21992888 -0.17541216 0.80869246 1
-0.17596801 -0.17450123 0.82849544 1
-0.13873315 -0.1747891 0.84483081 1
-0.31209436 -0.12643424 0.80575645 0.55729169
-0.21756804 -0.12541392 0.80815822 1
-0.17447026 -0.12494382 0.82750005 1
-0.13497096 -0.1250228 0.84471524 1
-0.31441087 -0.080823481 0.80337399 0.85770088
-0.21585794 -0.075519785 0.80792403 1
-0.17354302 -0.07462801 0.82694709 1
-0.13445206 -0.074376263 0.84358311 1
-0.3129164 -0.027051043 0.8016125 1
-0.21567163 -0.025757225 0.8077777 1
-0.17443377 -0.025096508 0.82555336 1
-0.13352334 -0.024740983 0.84320068 1
-0.21452971 0.023668651 0.8070733 1
-0.17399554 0.025203308 0.82485372 1
-0.13373698 0.024813142 0.84259963 1
-0.21566361 0.074403703 0.806337 1
-0.17574978 0.075618781 0.82413685 1
-0.13190073 0.074578032 0.84328789 1
-0.21505803 0.12420329 0.8062076 1
-0.17652927 0.12502445 0.82345194 1
-0.13463622 0.12468964 0.84164649 1
-0.31260651 0.17387836 0.80068374 0.00390625
-0.21561103 0.1753301 0.80616313 1
-0.17625029 0.17500862 0.82402635 1
-0.13417862 0.17594133 0.84253991 1
-0.21641387 0.22551161 0.80688179 1
-0.1759119 0.22479451 0.8252579 1
-0.13488881 0.22384673 0.84323847 1
-0.31806317 0.28619477 0.8025018 0.50195312
-0.22046553 0.27631986 0.80870372 1
-0.17594165 0.27464539 0.82850718 1
-0.13893437 0.2735295 0.84399253 1
-0.32416692 0.31312335 0.80900884 0.50195312
-0.22258826 0.31794974 0.81139219 1
-0.17482869 0.32168177 0.8333692 1
-0.14345887 0.32306063 0.84662592 1
-0.012300741 -0.3506119 0.89599478 1
-0.11892113 -0.31855166 0.85918146 1
-0.073864512 -0.32247257 0.87821084 1
-0.036388181 -0.3269105 0.89362031 1
-0.1186307 -0.27536798 0.8588894 1
-0.074611425 -0.27493784 0.87817037 1
-0.0377056 -0.27330995 0.89466035 1
-0.11543924 -0.22595443 0.85740548 1
-0.07478027 -0.22506312 0.8752749 1
-0.035214122 -0.22444978 0.89261019 1
-0.1128241 -0.17596695 0.85590416 1
-0.074840225 -0.17483886 0.8728224 1
-0.032608282 -0.17614684 0.89199036 1
-0.11057121 -0.12524879 0.85563791 1
-0.075138003 -0.12512557 0.8711431 1
-0.031806573 -0.12521283 0.89059305 1
-0.10959153 -0.075664394 0.85504031 1
-0.075728811 -0.075942218 0.86972457 1
-0.029958591 -0.073575817 0.89026803 1
-0.10882555 -0.026264358 0.85402089 1
-0.075333603 -0.026072932 0.86886215 1
-0.029205471 -0.024637798 0.88989067 1
-0.10881743 0.023509709 0.85386312 1
-0.075315051 0.024560036 0.86855042 1
-0.027882325 0.02516661 0.89053857 1
-0.10762321 0.074998304 0.85386837 1
-0.075129598 0.074998677 0.86829108 1
-0.028632836 0.075818159 0.89006668 1
-0.10815559 0.12626193 0.85458589 1
-0.074855655 0.12502393 0.86832738 1
-0.026416667 0.12458444 0.89063758 1
0.0027045165 0.1212552 0.89994586 1
-0.10827567 0.17357621 0.85458463 1
-0.074947648 0.17519879 0.86858851 1
-0.027574837 0.17474653 0.8898024 1
-0.11009541 0.22630592 0.85439372 1
-0.075747579 0.22531542 0.86900866 1
-0.027863471 0.22453907 0.89069587 1
-0.11407631 0.27537549 0.85583174 1
-0.075214535 0.27520648 0.87284189 1
-0.032829642 0.27444455 0.89214194 1
-0.11758076 0.32571328 0.85816205 1
-0.074955806 0.32468244 0.87705064 1
-0.037408661 0.32318375 0.89365906 1
-0.10797361 0.35211313 0.86388022 1
-0.071142323 0.35627243 0.88149601 1
-0.03838319 0.35933867 0.89571506 1
-0.0038392283 -0.35253537 0.90091693 1
0.027195759 -0.35538334 0.91854918 1
0.07293085 -0.35905206 0.9383688 1
-0.012195866 -0.3246915 0.90658712 1
0.024598954 -0.32548591 0.92219836 1
0.069531374 -0.32519686 0.94125128 1
-0.012986716 -0.27655065 0.90568709 1
0.024576785 -0.27517548 0.92268366 1
0.066831969 -0.27420932 0.94139045 1
-0.0099969236 -0.22623087 0.90368319 1
0.024722144 -0.22490776 0.91891688 1
0.07146915 -0.22522688 0.9407022 1
-0.0070654624 -0.17285503 0.90314472 1
0.024912834 -0.17522876 0.91749913 1
0.073636927 -0.17508148 0.93912631 1
-0.0058885403 -0.1253406 0.90321308 1
0.024902474 -0.12471499 0.91621166 1
0.075233318 -0.12528574 0.93812382 1
-0.0045181056 -0.078499183 0.90241659 1
0.024745008 -0.074520893 0.914509 1
0.075585969 -0.075748578 0.9368574 1
0.10399531 -0.062879696 0.9491123 1
-0.0040672934 -0.024711933 0.90157187 1
0.025109038 -0.025257217 0.91395241 1
0.075681031 -0.025819158 0.93605781 1
0.10448629 -0.028040282 0.94907665 1
-0.0022787328 0.026155939 0.90074342 1
0.024780389 0.024098892 0.9135989 1
0.075650699 0.024192287 0.93574113 1
0.10458297 0.023115097 0.94913262 1
-0.0028227472 0.073570751 0.90163159 1
0.025362615 0.075045802 0.91388154 1
0.075505763 0.074050002 0.93564975 1
0.10435411 0.076241665 0.94918656 1
-0.0016557574 0.12781532 0.90085769 1
0.024975721 0.12567636 0.9135347 1
0.074675977 0.12456837 0.9353776 1
0.10508363 0.12856787 0.94742441 1
-0.0023270426 0.17593075 0.901057 1
0.0247015 0.17494234 0.91341805 1
0.074948892 0.17499712 0.93615901 1
0.10386132 0.16706333 0.94910723 1
-0.0029004726 0.22856177 0.90168905 1
0.024551461 0.22488704 0.91350633 1
0.074571095 0.2249753 0.93685091 1
0.10381761 0.22168912 0.94850022 1
-0.0076366109 0.27664998 0.90325582 1
0.024511224 0.2748639 0.91647744 1
0.074133053 0.27489725 0.9383952 1
0.10223423 0.26374054 0.94915998 1
-0.01266957 0.32704711 0.90538049 1
0.024493119 0.32474777 0.92034101 1
0.070949964 0.32416251 0.9404183 1
-0.013222034 0.36114508 0.90648985 1
0.025686737 0.36471733 0.92306972 1
0.072887987 0.36895502 0.94246405 1
0.096320041 -0.36490193 0.95118856 1
0.12654169 -0.36343381 0.96111542 1
0.17650841 -0.36607254 0.97652972 1
0.22319937 -0.36993107 0.98807508 1
0.27079225 -0.38077894 0.99316424 1
0.31591585 -0.3899169 0.99799246 1
0.093246073 -0.32373917 0.95268214 1
0.12396289 -0.32475895 0.96403575 1
0.17386533 -0.32591662 0.98359913 1
0.20979901 -0.3239021 0.9962849 1
0.092230029 -0.27655646 0.95251799 1
0.12450302 -0.27490267 0.96627593 1
0.17356235 -0.2752606 0.98546135 1
0.20644914 -0.27416903 0.99802583 1
0.096925199 -0.22600751 0.95175719 1
0.12498417 -0.22469199 0.96450412 1
0.17444843 -0.22457597 0.98452514 1
0.20697002 -0.22578511 0.99685991 1
0.098738335 -0.17739995 0.95089722 1
0.12526296 -0.1743888 0.96218163 1
0.17435509 -0.17532262 0.98315918 1
0.20889805 -0.17319594 0.99638736 1
0.099053867 -0.14513917 0.95096034 1
0.12579575 -0.12419213 0.96107936 1
0.17489617 -0.12555853 0.98236889 1
0.21048748 -0.1248666 0.99675882 1
0.12659076 -0.076159857 0.96015626 1
0.17557237 -0.07425198 0.98131335 1
0.21139966 -0.074506357 0.99637836 1
0.12857749 -0.02614465 0.96002579 1
0.17521803 -0.024704369 0.98016024 1
0.21130839 -0.023743991 0.99521601 1
0.12800133 0.024844419 0.95905602 1
0.1753893 0.025141267 0.9799903 1
0.21120952 0.028480273 0.99464583 1
0.12812178 0.075568423 0.95985115 1
0.17454393 0.075331427 0.97921997 1
0.21251504 0.075611316 0.99475855 1
0.12848708 0.12542394 0.9597103 1
0.17508107 0.12444776 0.9795478 1
0.21272601 0.12530646 0.99454892 1
0.12602843 0.17611879 0.95880783 1
0.17393886 0.17485088 0.97911471 1
0.21308511 0.17624685 0.99406415 1
0.12652102 0.22526483 0.95946288 1
0.17295656 0.22517322 0.97844285 1
0.21477835 0.22547579 0.99401248 1
0.097625852 0.29518053 0.95078444 1
0.12454145 0.27511427 0.9596343 1
0.17441569 0.2748881 0.97889948 1
0.21757106 0.27564147 0.99490249 1
0.096068494 0.3305963 0.95163625 1
0.12365074 0.32477492 0.96166396 1
0.17466503 0.32509324 0.9807229 1
0.21620905 0.32368061 0.99497497 1
0.09669479 0.36510703 0.95104462 1
0.12553237 0.37252596 0.96129853 1
0.17553689 0.37304103 0.97982168 1
0.21552619 0.3744058 0.99500549 1
0.18526895 0.40399149 0.99163395 0.71540177
0.20133859 0.40577623 0.99833202 1
0.43532634 -0.40170115 1.0108453 1
0.47723988 -0.4036873 1.0182891 1
0.52751076 -0.40757692 1.0282083 1
0.5561474 -0.40716982 1.0316093 1
0.24167813 -0.35668021 1.0037932 1
0.27867165 -0.3631016 1.0112298 1
0.326846 -0.37121671 1.0221765 1
0.37338528 -0.38037306 1.0263506 1
0.42264721 -0.38894865 1.0291066 1
0.47322848 -0.39176062 1.0363506 1
0.52096242 -0.39631632 1.0413592 1
0.55856609 -0.39769411 1.0472578 1
0.23423015 -0.3246133 1.0064338 1
0.27384272 -0.32506827 1.0210063 1
0.32274145 -0.32459703 1.0402973 1
0.35062969 -0.32615507 1.0496129 1
0.23151626 -0.27541298 1.0069964 1
0.27443063 -0.27479026 1.021873 1
0.32299161 -0.27490526 1.0396537 1
0.23274425 -0.22496822 1.0064259 1
0.27339378 -0.22449481 1.0201247 1
0.32269359 -0.22481474 1.0386508 1
0.35073891 -0.2020355 1.0497184 1
0.23384692 -0.17570405 1.0056551 1
0.27455649 -0.1754003 1.0203938 1
0.32245421 -0.17439592 1.0376667 1
0.3505927 -0.17464352 1.0487185 1
0.23594767 -0.12572528 1.0057093 1
0.2752645 -0.12496228 1.0201643 1
0.32295096 -0.12425464 1.0374812 1
0.3522357 -0.1236365 1.0483695 1
0.23682457 -0.075746119 1.0058346 1
0.27515692 -0.074073091 1.0195913 1
0.32353169 -0.074800164 1.0375488 1
0.352972 -0.072326399 1.047832 1
0.23667654 -0.02561331 1.0051543 1
0.27551788 -0.025173424 1.0192605 1
0.32358217 -0.025504032 1.0370265 1
0.35285178 -0.028577682 1.0488341 1
0.23623337 0.023603274 1.004925 1
0.27526808 0.023784384 1.0190774 1
0.32338715 0.023800619 1.0363688 1
0.35402316 0.025805671 1.0472076 1
0.23815489 0.076039232 1.0053033 1
0.27526078 0.074691035 1.018406 1
0.32246754 0.074398056 1.0356203 1
0.35335827 0.073698297 1.0476267 1
0.23772271 0.12530078 1.0038931 1
0.2742534 0.12509264 1.0169685 1
0.32336766 0.1260165 1.0355891 1
0.35467345 0.12360478 1.0483826 1
0.23901893 0.17400557 1.0036123 1
0.27498558 0.17499162 1.016475 1
0.3268525 0.17525023 1.0360469 1
0.35610038 0.17343014 1.0480405 1
0.23980056 0.22379851 1.0034273 1
0.27550504 0.22482091 1.0156523 1
0.32616624 0.22524212 1.0352669 1
0.35649589 0.22136632 1.0473428 1
0.24089649 0.27354282 1.002957 1
0.27415138 0.27483431 1.0148828 1
0.32623976 0.27523196 1.0355669 1
0.35702735 0.27699617 1.0479381 1
0.23896842 0.32702145 1.0031865 1
0.27451506 0.32413581 1.0157559 1
0.32657361 0.32501552 1.0365697 1
0.3556774 0.32655138 1.0480335 1
0.23805387 0.3738108 1.003389 1
0.27450669 0.37338561 1.0175052 1
0.32454613 0.37482142 1.0378237 1
0.35335883 0.37276292 1.0488174 1
0.22882028 0.41050988 1.0126398 1
0.27822107 0.4157261 1.0350928 1
0.31763667 0.42133152 1.0449505 1
0.35710692 0.43075666 1.0463375 1
0.38296402 -0.3580209 1.0576613 1
0.42685047 -0.36564848 1.0666699 1
0.4756954 -0.36966857 1.0751045 0.96068048
0.52292532 -0.38239536 1.0690591 0.91699219
0.56170171 -0.3899239 1.0656505 0.88932294
0.34273851 -0.33811778 1.0519929 1
0.37477785 -0.32508758 1.0610856 1
0.42523748 -0.32540253 1.0790215 1
0.46918708 -0.3275674 1.0911862 0.98311704
0.37376195 -0.27505079 1.0593841 1
0.42466879 -0.2749643 1.0795305 1
0.46410593 -0.27682263 1.0942916 1
0.37423775 -0.22552514 1.0598146 1
0.42359549 -0.22473706 1.0784514 1
0.46245161 -0.22555232 1.094 1
0.3762275 -0.17575099 1.0596633 1
0.42392325 -0.17427427 1.0785244 1
0.46094137 -0.17572305 1.0932821 1
0.37768751 -0.12650946 1.0594239 1
0.42476431 -0.12426702 1.0792933 1
0.46179068 -0.12408727 1.0943441 1
0.37862197 -0.076837435 1.0593196 1
0.42314667 -0.075776435 1.0774688 1
0.46381411 -0.075641073 1.0937065 1
0.37775025 -0.025410866 1.058533 1
0.42378515 -0.026347622 1.0776129 1
0.4629246 -0.026218273 1.0928962 1
0.37985593 0.023657184 1.0588658 1
0.42361626 0.024639871 1.0771542 1
0.46366626 0.026047625 1.0936219 1
0.3793624 0.074411608 1.0589991 1
0.42380324 0.075634435 1.0777491 1
0.46406084 0.073298708 1.0941876 1
0.37942046 0.12400583 1.0580847 1
0.422941 0.12585302 1.0759715 1
0.46556264 0.12334275 1.0942537 1
0.37905237 0.17471796 1.0581208 1
0.42409638 0.17508802 1.0768715 1
0.46308187 0.17568821 1.0932217 1
0.37932464 0.22521806 1.0573044 1
0.42330092 0.22514549 1.0752498 1
0.46517867 0.22612399 1.0926276 1
0.37949052 0.27408487 1.0567832 1
0.42294782 0.2746979 1.0745564 1
0.46730444 0.27353716 1.0918752 1
0.37904117 0.32465646 1.0573509 1
0.42437822 0.32444832 1.0759864 1
0.4654662 0.32531768 1.0922257 1
0.37828481 0.3743355 1.0583097 1
0.42632422 0.3752079 1.0780835 1
0.46859783 0.37450933 1.0932723 1
0.33630079 0.41762638 1.0553801 1
0.37713021 0.42281854 1.0672362 1
0.4249154 0.42511657 1.079215 1
0.47204909 0.4252474 1.0887913 0.92337739
0.51953959 0.41140676 1.0882511 0.88046873
0.55197668 0.41227421 1.0972228 1
0.47491765 0.45276165 1.085477 1
0.50642198 0.45760012 1.0915507 1
0.4922384 -0.32224697 1.1029704 1
0.52463371 -0.32415748 1.110204 0.98535156
0.57515907 -0.3231031 1.1332824 0.94663781
0.60598868 -0.31633714 1.1458696 1
0.48964393 -0.27251986 1.105163 1
0.524149 -0.27512354 1.1166871 1
0.57450473 -0.27486137 1.1373054 1
0.60452938 -0.2727108 1.1437844 1
0.48737258 -0.22296265 1.1040372 1
0.52385521 -0.22500017 1.1178962 1
0.57471544 -0.22473679 1.1410415 1
0.60449952 -0.22327773 1.1476521 1
0.48692915 -0.17570806 1.1041743 1
0.52222097 -0.17473045 1.1177387 1
0.57325822 -0.17707284 1.1402342 1
0.60375494 -0.17505904 1.1484363 1
0.4864091 -0.12724183 1.1031946 1
0.52286994 -0.12499283 1.1185637 1
0.57215518 -0.12320933 1.1404331 1
0.60377181 -0.12550621 1.1494998 1
0.48864248 -0.07345663 1.103936 1
0.52337676 -0.074486122 1.1192939 1
0.56922841 -0.074589849 1.1398473 1
0.60537636 -0.096668936 1.1491336 1
0.48887181 -0.024367286 1.1041536 1
0.52411991 -0.024395416 1.1191293 1
0.56727135 -0.027570847 1.1383501 1
0.48866123 0.02352953 1.10443 1
0.52297843 0.025380075 1.1192596 1
0.56794387 0.02187161 1.1391631 1
0.48739657 0.078319564 1.1032434 1
0.52389163 0.075613253 1.1191257 1
0.56811839 0.074719585 1.1395785 1
0.49006888 0.12621969 1.104414 1
0.52376968 0.12396664 1.1192896 1
0.57224512 0.12909879 1.1408165 1
0.60268509 0.14326589 1.1491665 1
0.48751867 0.17472848 1.1035318 1
0.52327496 0.17426993 1.1186963 1
0.57261413 0.17502539 1.1411254 1
0.60327351 0.16484404 1.14908 1
0.49122474 0.22239283 1.1044345 1
0.52385253 0.22584459 1.1185801 1
0.57393879 0.2264072 1.1415306 1
0.60505205 0.24059734 1.1485964 1
0.49246284 0.27795705 1.1030993 1
0.52503699 0.27606973 1.1177621 1
0.57601178 0.27521262 1.1404577 1
0.60678005 0.27203426 1.1477922 1
0.49143273 0.32358608 1.103512 1
0.52640241 0.3253231 1.1181012 1
0.57658195 0.32600543 1.13928 1
0.6059379 0.32993799 1.1481199 1
0.49091724 0.37104103 1.1022779 1
0.52341741 0.37573287 1.1151112 1
0.57425761 0.37610796 1.1356812 1
0.60847557 0.37555557 1.1436945 1
0.48570928 0.40549278 1.1044135 1
0.52401268 0.40312308 1.1086136 1
0.57675058 0.40846729 1.1249468 0.95669156
0.60991609 0.40724215 1.1341116 1
0.61464947 -0.33689928 1.1555201 1
0.591667 -0.1580416 1.1511108 1
0.60702783 -0.1573171 1.1503512 1
0.59084612 -0.12803397 1.1509811 1
0.60534465 -0.13303891 1.1502806 1
0.5939399 -0.076084189 1.1517829 1
0.60391021 -0.070881896 1.1520417 1
0.59198838 -0.021201527 1.1527073 1
0.60417992 -0.025896095 1.1526856 1
0.59302747 0.02562359 1.1524903 1
0.60505486 0.026275709 1.1543201 1
0.59144336 0.072278909 1.1515952 1
0.60429841 0.07323534 1.1530019 1
0.59182763 0.11022104 1.1514181 1
0.60465562 0.1175456 1.1518459 1
0.5929898 0.18706526 1.1502409 1
0.60496897 0.18435828 1.1505742 1
0.59690911 0.2107995 1.1508427 1
0.60733002 0.21581511 1.1516913 1
0.60935485 0.29533419 1.1504902 1
0.6115278 0.31653854 1.1512727 1
0.61461884 0.42898408 1.1629783 0.50195312
